-14.674813 18.129662 215.729904 0.408506 -0.870714 0.273825 6.000000
-52.867513 2.522440 265.854747 0.737962 0.234377 0.632835 6.000000
81.272076 65.598022 321.256403 -0.363011 0.912279 -0.189656 5.000000
-55.300197 6.019401 268.232219 0.757329 -0.164098 0.632080 6.000000
-60.490100 4.533405 274.124004 0.737056 -0.134279 0.662358 6.000000
-0.198887 11.419516 146.751887 0.069891 0.980857 -0.181755 5.000000
-52.511824 -2.929996 270.051614 -0.517756 -0.607645 -0.602243 6.000000
37.538227 -22.061557 116.778746 -0.513343 -0.783253 -0.350705 3.000000
-47.389967 11.421626 152.378463 -0.500875 -0.673880 -0.543149 4.000000
-8.343697 5.415218 13.331820 0.982052 -0.188438 0.008080 0.000000
-9.223621 10.374672 224.377625 0.840329 -0.482480 0.247104 7.000000
6.832591 -5.252039 157.825392 0.768989 0.009154 -0.639197 5.000000
-18.152534 21.835686 234.194412 0.469761 -0.826682 0.309712 6.000000
-24.626368 16.687234 233.495924 0.610543 -0.712771 0.345245 6.000000
-3.788642 11.600671 213.842787 0.188889 -0.971647 0.142211 7.000000
-85.127558 -9.415210 297.453364 -0.330038 -0.406555 -0.851932 6.000000
-94.485658 -5.983480 301.107538 0.428344 0.116288 0.896102 6.000000
7.766837 2.557543 79.232500 0.862313 -0.069583 -0.501572 3.000000
-2.439566 10.267029 140.275085 -0.041068 -0.988396 0.146239 5.000000
-25.368701 10.646534 224.989003 0.847604 -0.425138 0.317530 6.000000
-2.134220 -0.664381 151.283204 0.000707 -1.000000 -0.000680 6.000000
53.735484 56.016633 271.613407 0.732414 -0.028769 -0.680251 5.000000
6.095467 -4.474558 157.089149 0.760275 -0.020384 -0.649281 5.000000
-44.706965 13.896595 146.518786 -0.366685 -0.568882 -0.736149 4.000000
10.504808 22.776217 210.876570 0.525669 -0.839490 0.137581 5.000000
-43.243496 17.151017 266.402126 0.434836 -0.870110 0.232004 6.000000
-9.308676 11.724060 227.393519 0.801635 -0.542416 0.251327 7.000000
42.116442 45.675068 258.971881 0.827766 -0.465819 -0.312755 5.000000
-195.047424 24.593978 170.726171 -0.077853 -0.646943 0.758554 4.000000
75.574541 60.415315 311.827740 0.756591 -0.651484 -0.056013 5.000000
91.339830 78.860440 302.506016 0.778395 -0.272373 -0.565610 5.000000
66.522042 48.941155 297.978068 0.871305 -0.388683 -0.299589 5.000000
-30.727351 19.067667 247.584812 0.566886 -0.751808 0.336786 6.000000
-42.896571 10.818853 254.630422 0.759099 -0.356396 0.544748 6.000000
-122.960871 17.920634 182.392809 -0.502081 -0.696823 -0.512203 4.000000
-112.836582 20.429993 176.315169 0.262609 0.162738 0.951080 4.000000
-57.866276 6.732256 271.675805 0.744216 -0.275752 0.608362 6.000000
84.340604 -124.378507 114.332268 0.094742 0.228017 0.969037 3.000000
-20.671114 14.789664 219.070658 0.676828 -0.697142 0.236424 6.000000
-13.238147 4.206818 54.430487 -0.175729 0.857738 -0.483120 2.000000
89.167830 64.678835 315.629170 0.074275 0.993760 -0.083214 5.000000
-59.447112 1.718083 272.768447 0.724044 0.050899 0.687873 6.000000
-112.002798 38.371223 177.280611 0.444972 -0.156552 0.881755 4.000000
2.773888 4.871801 56.915794 -0.658038 -0.752887 -0.012155 0.000000
127.821721 69.300292 330.370114 -0.573980 0.194089 0.795535 5.000000
-52.509272 -5.834463 273.433818 -0.526652 -0.690185 -0.496269 6.000000
-45.569930 8.550312 257.017371 0.777536 -0.247545 0.578065 6.000000
-132.570709 36.920860 184.691997 -0.115881 -0.937048 0.329412 4.000000
61.328389 -46.901018 125.589974 0.705552 0.621496 0.340499 3.000000
-17.165066 20.321145 227.034302 0.450716 -0.854184 0.259278 6.000000
87.346023 -129.370362 114.736229 -0.455218 -0.167585 -0.874466 3.000000
1.474654 4.543282 111.419923 0.853134 -0.520959 0.027646 0.000000
40.408386 42.686866 258.849267 0.832943 -0.492902 -0.251503 5.000000
41.811374 50.478827 258.469010 -0.668181 -0.229596 0.707686 5.000000
-42.932064 16.650052 264.360683 0.465979 -0.844715 0.263287 6.000000
16.564836 11.661279 187.306319 -0.588463 -0.612321 0.527991 5.000000
-38.035079 13.362774 249.404091 0.724870 -0.495499 0.478586 6.000000
75.848537 -69.261359 115.616634 0.998798 0.047537 -0.011913 3.000000
-34.511471 -9.595137 253.759285 0.583199 0.569993 0.578780 6.000000
14.623629 14.073433 188.689400 -0.545139 -0.716228 0.435707 5.000000
14.919216 40.215912 240.486680 0.720369 -0.558953 0.410659 5.000000
-15.340155 20.012989 222.928692 0.370248 -0.890099 0.265783 6.000000
14.664316 22.299642 196.103655 0.255601 -0.951461 0.171435 5.000000
75.615848 -94.363980 108.046749 0.773199 -0.116946 -0.623287 3.000000
1.104729 2.145740 131.459204 0.928305 -0.369890 -0.037835 5.000000
-41.574930 12.986995 254.436623 0.724664 -0.497902 0.476399 6.000000
-34.294803 19.918668 255.815342 0.532731 -0.805570 0.259336 6.000000
0.468719 0.149695 135.861389 0.910547 -0.395133 -0.121548 5.000000
124.585956 53.195513 340.171705 -0.193070 0.899501 -0.391948 5.000000
-6.644736 -0.832991 171.391598 -0.457388 -0.878313 -0.139149 6.000000
66.549472 -30.358602 114.729563 0.346453 0.253907 0.903051 3.000000
-24.241377 11.904823 223.698435 0.840056 -0.455831 0.294150 6.000000
2.517026 5.037331 62.329666 -0.579436 -0.814917 -0.012845 0.000000
-36.188131 11.162593 245.520631 0.756797 -0.295964 0.582806 6.000000
58.709654 -43.831281 124.505099 -0.455073 -0.603746 -0.654523 3.000000
15.104822 14.758387 190.148231 -0.491885 -0.743894 0.452405 5.000000
-178.916930 27.321454 176.448847 -0.081668 -0.967851 0.237898 4.000000
17.033922 5.532033 182.922648 0.666925 0.368679 -0.647523 5.000000
-19.363912 3.120356 61.701744 -0.496375 0.650394 -0.574978 2.000000
13.807405 13.282987 186.149410 -0.591051 -0.665515 0.455794 5.000000
88.210600 -120.671212 112.349754 0.204936 0.321031 0.924630 3.000000
16.387262 41.178345 239.358364 0.648302 -0.602403 0.465635 5.000000
-1.100476 7.463277 22.453432 -0.257897 -0.966133 0.008755 0.000000
-30.698278 4.843929 139.405729 0.599850 0.458528 0.655692 4.000000
77.363990 -61.606267 110.352935 0.708643 -0.179875 0.682254 3.000000
67.072323 47.488291 302.468438 0.881563 -0.453894 -0.129718 5.000000
-48.407252 7.459637 260.332204 0.757103 -0.196234 0.623126 6.000000
-4.293295 12.487612 219.055390 0.219574 -0.943719 0.247348 7.000000
57.521930 -31.787268 116.391377 0.067479 0.293549 0.953559 3.000000
-9.651967 17.501452 208.798852 0.035401 -0.970786 0.237321 6.000000
2.855660 1.314713 14.131594 -0.364508 -0.923262 0.121328 0.000000
39.827142 44.186105 254.357650 0.840586 -0.484458 -0.242315 5.000000
-13.037113 18.411567 214.769879 0.274540 -0.930993 0.240583 6.000000
87.675704 78.416728 295.255601 0.819820 -0.492047 -0.292889 5.000000
62.929483 60.105284 280.646499 0.698141 -0.249066 -0.671242 5.000000
43.933831 -33.043062 118.814790 0.418253 0.199082 0.886245 3.000000
14.276638 23.579370 203.369979 0.418574 -0.891204 0.174786 5.000000
-8.784685 5.555659 161.247177 0.787666 -0.601317 0.134166 6.000000
17.465216 18.016656 200.308879 0.663719 0.641934 -0.383924 5.000000
151.945390 41.310734 341.378297 0.392155 0.073596 0.916950 5.000000
104.784953 56.703348 321.104303 0.058777 -0.929052 -0.365251 5.000000
81.594532 65.035084 318.136640 0.286593 -0.931850 0.222529 5.000000
-43.945806 15.000534 261.351617 0.583804 -0.742829 0.327685 6.000000
4.529830 19.488138 189.113111 0.416475 0.897747 -0.143523 5.000000
-35.275307 -6.962274 251.770886 0.637039 0.571847 0.516887 6.000000
-60.630849 -2.001540 276.777493 -0.450495 -0.725981 -0.519621 6.000000
46.316936 -30.482603 117.821057 0.212820 0.355154 0.910260 3.000000
-244.728188 -12.639312 180.438010 0.964315 -0.252280 -0.080326 4.000000
-53.276492 7.688013 266.423819 0.743054 -0.306392 0.594974 6.000000
-191.719517 20.178592 158.230171 0.440529 -0.866684 0.234080 4.000000
-15.819045 20.572385 226.018009 0.333509 -0.911779 0.239647 6.000000
-142.270090 40.964261 180.614101 -0.476932 -0.827706 0.295699 4.000000
4.700047 23.050630 216.839060 -0.308481 -0.951161 -0.011509 5.000000
-23.506301 4.308803 70.781012 0.274985 -0.927009 0.255023 2.000000
-46.569296 13.368178 262.587381 0.647031 -0.640494 0.413666 6.000000
-2.045617 0.822916 2.899787 -0.101567 -0.993530 0.050810 0.000000
-6.645697 6.758946 151.384773 0.828307 -0.551304 0.099855 6.000000
-33.635703 -8.917626 252.102398 0.597192 0.581621 0.552340 6.000000
37.583978 41.029113 252.672843 0.893667 -0.336544 -0.296812 5.000000
-12.333478 20.458329 222.001847 0.140279 -0.962439 0.232451 6.000000
-65.496581 1.743746 279.060041 0.715976 -0.061154 0.695441 6.000000
-45.499179 -4.190294 263.448389 0.602439 0.587595 0.540185 6.000000
-45.312020 17.704765 271.501377 -0.314848 0.915289 -0.251232 6.000000
91.481241 74.546188 304.488243 -0.630011 0.254855 0.733577 5.000000
18.738508 5.043735 184.146472 -0.647841 -0.392423 0.652921 5.000000
65.847157 -52.173769 121.548981 0.661056 0.216849 0.718318 3.000000
-82.288917 -6.082409 294.220207 0.460531 0.327180 0.825145 6.000000
-6.289037 13.558336 225.201775 0.474961 -0.826981 0.300856 7.000000
68.465835 -64.579332 123.990078 -0.234269 -0.604859 -0.761094 3.000000
14.273439 12.273960 185.204439 -0.564093 -0.690350 0.453008 5.000000
32.969687 60.048383 257.149210 0.681752 0.560827 -0.469774 5.000000
-61.532822 5.190990 275.498625 0.747319 -0.220045 0.626972 6.000000
3.843654 -2.234267 153.499541 0.797984 -0.397325 -0.453160 5.000000
-57.572555 1.614432 270.969992 0.711078 0.149906 0.686947 6.000000
-199.437976 18.678673 160.970836 0.208232 -0.950044 0.232498 4.000000
-32.605158 -5.391379 247.115505 0.632809 0.604952 0.483308 6.000000
-0.044650 9.231128 172.194992 -0.571768 -0.819854 0.030359 6.000000
-38.629972 12.010139 249.165832 0.763698 -0.349690 0.542662 6.000000
119.831586 59.120839 339.436800 -0.313175 -0.947973 -0.057170 5.000000
-148.128695 17.970920 177.944418 -0.374041 0.203640 0.904779 4.000000
-0.975215 6.382195 77.049554 -0.169935 -0.985419 0.008483 0.000000
27.393968 -7.665171 26.332749 0.276343 0.421150 0.863868 1.000000
-192.307416 21.303996 162.275584 0.386172 -0.873834 0.295440 4.000000
-44.694318 11.085676 150.015224 -0.552993 -0.648670 -0.522902 4.000000
42.123702 44.217665 261.534833 0.813374 -0.518303 -0.264169 5.000000
-5.737974 0.810259 28.529381 0.467898 0.883515 -0.021732 0.000000
77.588179 -70.988755 121.673813 0.763610 0.642889 -0.059945 3.000000
0.103946 6.514223 85.856041 -0.147444 -0.987385 0.057718 0.000000
66.246970 67.456546 281.159179 -0.578263 0.095183 0.810279 5.000000
2.447732 5.684345 86.093680 -0.543369 -0.836674 0.068747 0.000000
20.369960 14.884220 197.262666 -0.588873 -0.761591 0.270569 5.000000
-29.299353 -5.621456 243.117148 -0.463130 -0.779106 -0.422498 6.000000
90.147055 65.045289 324.295566 -0.315625 -0.948742 0.016394 5.000000
-8.974209 9.960238 222.341658 0.856364 -0.483048 0.182500 7.000000
135.586706 60.968319 334.962685 -0.370646 0.015516 0.928645 5.000000
-27.486839 -2.493393 234.229678 -0.586218 -0.730993 -0.349283 6.000000
-55.236380 -9.513018 283.790174 -0.531288 -0.725235 -0.437912 6.000000
-162.573610 21.923407 179.612897 0.310433 0.194993 0.930381 4.000000
-151.081035 33.963462 173.090957 -0.251329 0.131058 0.958988 4.000000
-120.157334 18.696189 179.296117 -0.472181 -0.458658 -0.752781 4.000000
-66.674368 2.511784 280.409282 0.704571 -0.169193 0.689168 6.000000
25.308440 -3.749953 25.254423 0.089448 0.218253 0.971784 1.000000
-28.638844 19.719003 245.643217 0.544675 -0.766821 0.339581 6.000000
23.344142 12.688268 199.991628 -0.613713 -0.777339 0.138206 5.000000
64.909301 49.905530 293.341369 0.837297 -0.288421 -0.464486 5.000000
-25.745362 -3.307029 233.497694 -0.326218 -0.835073 -0.442984 6.000000
-7.680695 17.492740 208.897134 -0.078066 -0.973985 0.212739 6.000000
-0.577126 6.780354 33.332253 -0.270023 -0.958129 -0.095272 0.000000
0.658792 5.979976 53.427189 -0.329407 -0.944183 -0.002986 0.000000
122.368482 58.268307 337.977725 -0.346424 -0.932465 -0.102467 5.000000
72.659981 -61.422985 119.004993 0.896751 0.357993 0.260150 3.000000
-58.324668 3.308627 271.584151 0.739451 0.005360 0.673189 6.000000
-10.849623 9.550727 179.799868 0.808297 -0.546203 0.219815 6.000000
13.249747 32.227902 230.829848 0.755345 -0.580922 0.303288 5.000000
-57.576826 -5.591152 279.351260 -0.488269 -0.754793 -0.438043 6.000000
78.692813 -60.465704 109.291299 0.762611 -0.096821 0.639571 3.000000
2.467279 1.086570 10.953183 -0.119949 -0.991161 0.056674 0.000000
15.419886 24.559293 205.470264 0.377239 -0.902290 0.208718 5.000000
4.759014 16.318413 174.627046 -0.237926 -0.940713 0.241765 5.000000
-19.199673 14.180299 129.227539 0.609386 -0.665787 0.430554 4.000000
61.730666 -37.281215 117.616825 0.265184 0.377350 0.887290 3.000000
3.226385 11.234909 142.790420 -0.018929 -0.988616 0.149264 5.000000
9.272379 19.974747 193.840945 0.210569 -0.969360 0.126499 5.000000
-86.755461 37.193632 172.772886 0.263782 0.947289 -0.181834 4.000000
65.850041 -49.121858 120.414171 0.771402 0.227670 0.594227 3.000000
-147.433214 30.548624 174.445043 -0.098624 0.307356 0.946470 4.000000
-12.105605 16.238845 205.503208 0.283063 -0.927871 0.242756 6.000000
-66.299256 11.713788 288.042408 0.512296 -0.799748 0.312978 6.000000
6.893151 20.888033 202.069658 -0.045796 -0.988484 0.144227 5.000000
-0.970958 6.476848 52.077847 -0.204017 -0.978958 -0.004270 0.000000
-34.904602 -12.631741 256.818657 -0.577187 -0.461766 -0.673518 6.000000
-12.124800 20.017423 219.953789 0.121683 -0.959530 0.253959 6.000000
-91.262162 -5.725019 299.334444 0.538743 0.058745 0.840420 6.000000
-44.410592 10.831536 256.723853 0.761588 -0.386324 0.520323 6.000000
-98.754459 26.811710 171.621859 0.217918 0.145495 0.965061 4.000000
74.046143 -57.722180 114.118587 0.678520 -0.090534 0.728981 3.000000
-45.386461 9.026192 154.053150 -0.474502 -0.784738 -0.398790 4.000000
-11.657528 18.761720 214.832525 0.158335 -0.963168 0.217342 6.000000
7.293734 17.849533 183.210662 0.097195 -0.975380 0.197955 5.000000
38.233117 50.159506 254.270471 0.705803 0.278846 -0.651220 5.000000
-68.783537 29.174005 171.133460 -0.359298 -0.828553 0.429424 4.000000
-56.957578 13.322519 157.626695 -0.409061 -0.663055 -0.626919 4.000000
-6.647710 11.793594 180.870765 0.126565 -0.976662 0.173530 6.000000
-8.560309 9.862379 173.424238 0.576000 -0.801165 0.162357 6.000000
62.783979 68.363183 279.016420 -0.497416 -0.080943 0.863728 5.000000
2.470448 5.162295 33.915060 0.731377 0.681117 0.034180 0.000000
-36.632075 16.604342 251.810734 0.609074 -0.699475 0.373850 6.000000
-10.846460 17.118783 207.620050 0.175427 -0.954528 0.241043 6.000000
-42.069028 10.174433 253.011933 0.795843 -0.281477 0.536102 6.000000
-4.620101 10.714783 173.648116 0.032418 0.991398 -0.126803 6.000000
-12.321144 16.977785 208.625593 0.294244 -0.927555 0.230351 6.000000
-13.980433 6.258862 186.640056 0.891145 -0.391166 0.229890 6.000000
-43.355931 9.033608 254.259916 0.773568 -0.271812 0.572460 6.000000
16.742484 47.681173 247.559491 0.703973 -0.594704 0.388265 5.000000
-17.040030 -2.330785 210.161983 -0.399673 -0.907872 -0.126607 6.000000
-37.929144 17.090484 255.012325 0.572382 -0.754668 0.320710 6.000000
148.185769 51.142005 338.815039 0.072535 -0.275366 -0.958599 5.000000
-75.152622 14.076231 170.742738 0.627732 0.548085 0.552770 4.000000
-146.323128 24.787264 177.462879 -0.097180 0.261639 0.960261 4.000000
20.129786 14.492820 195.900882 -0.568806 -0.751939 0.333236 5.000000
-6.859578 10.488375 138.718363 0.058723 -0.977025 0.204874 5.000000
-70.442702 18.897008 85.748771 0.680354 0.577201 -0.451616 2.000000
-178.464826 25.975431 170.320856 0.247403 -0.968854 0.010684 4.000000
183.997843 32.992496 340.677812 -0.422240 -0.902107 0.088975 5.000000
-40.249462 4.078248 249.417808 0.828220 -0.057074 0.557490 6.000000
-209.029338 26.124798 167.586253 -0.220372 0.175660 0.959468 4.000000
14.689705 25.534041 210.653354 0.409845 -0.865778 0.287152 5.000000
9.893989 24.341013 223.472336 0.589256 -0.797565 0.129102 5.000000
24.954201 9.366386 193.551371 -0.529018 -0.731711 0.429813 5.000000
83.617928 -114.136799 111.099774 0.182244 0.262795 0.947484 3.000000
-60.181572 6.330556 274.297776 0.736407 -0.266691 0.621756 6.000000
-7.374094 12.856875 225.265476 0.592832 -0.753347 0.284636 7.000000
125.278892 67.397205 329.225542 -0.492212 0.261413 0.830296 5.000000
-37.537431 16.459784 253.045700 0.607090 -0.708443 0.359930 6.000000
65.525607 -50.133749 121.250703 -0.726558 -0.366155 -0.581415 3.000000
139.346740 56.547498 336.531483 -0.110168 0.291234 0.950287 5.000000
-45.616463 10.594600 151.557688 -0.525559 -0.692693 -0.493928 4.000000
-9.812892 17.988349 210.848577 0.036883 -0.974085 0.223157 6.000000
65.982839 -54.267599 121.600511 0.663453 0.049723 0.746564 3.000000
-35.693792 13.088832 245.934682 0.744432 -0.367611 0.557389 6.000000
-70.230703 -2.249028 284.691034 0.533678 0.519529 0.667291 6.000000
-40.691011 18.742414 153.154733 -0.113315 -0.955420 0.272638 4.000000
2.643285 3.352559 78.989017 0.955685 -0.289322 -0.054391 0.000000
-52.596336 14.523658 273.519377 0.577121 -0.724240 0.377370 6.000000
-48.167694 10.627201 261.619979 0.731467 -0.402763 0.550216 6.000000
88.905056 79.880156 296.091343 0.821685 -0.485536 -0.298477 5.000000
67.350661 -63.480014 123.819658 0.192135 0.420341 0.886790 3.000000
-190.503048 20.992599 158.135621 0.545386 -0.803890 0.237308 4.000000
29.435300 5.819107 24.262154 0.038307 0.108504 0.993358 1.000000
17.505115 26.685557 210.673435 0.286310 -0.913898 0.287778 5.000000
-8.674244 12.909389 188.083027 0.307534 -0.915121 0.260721 6.000000
29.492880 33.122342 254.266377 0.689372 -0.624453 0.367184 5.000000
54.449921 72.867147 276.800368 -0.204360 -0.157988 0.966063 5.000000
41.191992 -14.478820 110.938528 -0.631954 -0.329148 0.701638 3.000000
28.231382 35.067941 260.104231 0.587121 -0.742979 0.321360 5.000000
47.909338 -38.577473 119.849269 -0.186785 0.348846 0.918378 3.000000
3.736614 2.807932 60.689649 0.974600 -0.197500 -0.105590 0.000000
-5.229333 15.859499 204.039013 -0.303084 -0.930998 0.203430 6.000000
-38.220169 4.574706 246.479138 0.824756 -0.166737 0.540349 6.000000
17.105398 2.922485 91.775322 0.415318 0.091521 -0.905061 3.000000
-1.558044 6.435291 74.585320 -0.181264 -0.983433 -0.001763 0.000000
-9.979661 18.729833 213.906611 0.023438 -0.977854 0.207971 6.000000
-11.228148 14.724114 198.325882 0.378924 -0.896494 0.229599 6.000000
125.963492 68.804003 329.185509 -0.533621 0.236232 0.812061 5.000000
-9.468937 14.293357 194.231565 0.297996 -0.921519 0.248998 6.000000
-8.598011 -4.449234 202.587876 -0.320827 -0.947103 0.008054 6.000000
0.400543 2.391705 119.300398 0.841293 -0.535956 -0.070550 0.000000
76.908894 -58.730491 110.941750 0.813952 -0.069900 0.576711 3.000000
-34.440043 -3.643116 246.605484 0.629759 0.619884 0.468132 6.000000
-44.307587 15.586532 263.347910 0.521531 -0.796960 0.304728 6.000000
65.005133 -57.873503 122.795178 0.389323 0.060192 0.919132 3.000000
-13.501133 12.989563 197.420320 0.628848 -0.717300 0.300052 6.000000
7.253548 15.281326 167.408615 -0.602293 -0.618835 0.504268 5.000000
-6.500500 -4.538934 210.281894 -0.263515 -0.962207 0.068681 6.000000
-56.856726 -5.316275 277.745885 -0.536120 -0.712529 -0.452635 6.000000
70.154920 60.169115 288.952758 0.756731 -0.389224 -0.525226 5.000000
-4.703761 0.573652 77.776483 -0.300511 -0.953644 -0.016030 0.000000
37.961984 55.220367 257.994722 -0.512785 -0.690414 0.510274 5.000000
20.371233 16.255342 201.202238 -0.603396 -0.764566 0.226607 5.000000
6.007028 17.175232 179.962327 -0.044474 -0.975566 0.215159 5.000000
3.037229 22.755279 203.565718 -0.568936 -0.806085 0.162908 5.000000
130.929042 67.183313 332.805858 -0.503575 0.009246 0.863902 5.000000
-14.133439 17.470273 212.711881 0.421915 -0.872905 0.244999 6.000000
-0.619059 6.482048 43.366653 -0.291069 -0.956308 -0.027462 0.000000
90.125880 77.369599 301.613651 0.791067 -0.336599 -0.510798 5.000000
39.608969 41.096238 259.964465 0.727932 -0.674986 -0.120455 5.000000
64.278562 61.599674 281.336217 -0.675972 0.266303 0.687128 5.000000
21.945163 2.123637 93.444679 0.140347 -0.255833 -0.956479 3.000000
71.440052 53.788131 310.987377 0.871367 -0.490627 -0.001943 5.000000
8.165027 4.941821 79.326362 0.839563 -0.307903 -0.447582 3.000000
-3.640404 0.848740 133.148190 0.812462 0.580092 -0.058299 6.000000
74.193190 58.405027 312.209602 0.848113 -0.516610 -0.117550 5.000000
-42.629489 22.008047 159.624719 -0.457440 -0.792668 0.403021 4.000000
-0.150041 0.541839 128.554562 0.772573 -0.626740 -0.101628 5.000000
-6.182180 25.192751 169.362983 0.642173 -0.705280 0.300323 5.000000
14.485752 26.576410 213.712160 0.502055 -0.822965 0.265838 5.000000
15.536304 23.916852 202.379306 0.222688 -0.941205 0.254053 5.000000
-57.829565 -2.176577 274.483599 -0.515312 -0.665528 -0.539932 6.000000
-69.133255 10.419797 289.118703 0.560105 -0.742532 0.367326 6.000000
74.803587 -68.470689 119.679424 0.904261 0.423175 0.056872 3.000000
-8.253099 5.341178 155.866979 0.829374 -0.536318 0.156527 6.000000
-7.582913 7.255374 105.531256 0.302330 -0.922401 0.240360 0.000000
38.755678 52.862542 256.311584 -0.527923 -0.430550 0.732068 5.000000
-69.451235 10.941980 291.123095 0.413278 -0.872709 0.259961 6.000000
-54.164861 8.413931 267.921097 0.734170 -0.369741 0.569461 6.000000
-47.419409 3.007964 259.131048 0.765770 0.129127 0.630017 6.000000
79.473855 62.902742 308.596970 0.289570 -0.941835 0.170577 5.000000
5.341513 -2.289117 80.296545 0.722869 -0.563281 -0.400219 3.000000
8.361289 18.703166 187.489902 0.173382 -0.964980 0.196854 5.000000
0.074220 11.026292 144.692091 0.035852 -0.990045 0.136108 5.000000
-36.096300 19.312514 154.552843 0.242146 -0.961724 0.128264 4.000000
33.509914 35.711496 244.342368 0.879347 -0.337025 -0.336397 5.000000
8.184997 21.602094 208.662168 0.064548 -0.984222 0.164745 5.000000
26.287493 24.733217 244.573043 0.832400 -0.476311 0.283264 5.000000
-126.105546 19.365654 185.365892 0.562605 0.738945 0.370723 4.000000
-12.343300 15.412464 126.123843 0.442622 -0.798133 0.408741 4.000000
-48.238688 13.851851 150.317227 -0.527654 -0.668999 -0.523471 4.000000
-71.086458 12.662301 167.253867 0.603898 0.407276 0.685153 4.000000
69.009451 -57.435463 120.069524 -0.719161 -0.375044 -0.584935 3.000000
-12.156106 16.518504 206.559409 0.290671 -0.925577 0.242525 6.000000
-187.725843 23.367695 157.808285 0.669520 -0.730093 0.136776 4.000000
-99.395105 15.547150 176.191202 -0.255384 0.098887 0.961769 4.000000
-5.360149 24.637577 166.447415 0.540120 -0.765561 0.349553 5.000000
-55.339448 -8.695976 282.535092 -0.516978 -0.746663 -0.418602 6.000000
-54.307392 15.593748 278.691930 0.683687 -0.661137 0.308982 6.000000
-13.832251 -2.611002 202.723153 -0.428110 -0.892294 -0.143290 6.000000
-199.246362 18.300214 158.889595 0.046102 -0.990586 0.128899 4.000000
-6.439957 6.745985 119.803575 0.512867 -0.849476 0.123929 0.000000
37.101892 41.939897 270.526464 0.174208 -0.971668 0.159730 5.000000
63.178657 45.038781 293.877984 0.810647 -0.405560 -0.422341 5.000000
6.537503 2.256957 182.902874 0.808658 -0.564072 -0.167018 7.000000
11.889306 25.551328 218.989088 0.766568 -0.628214 0.133119 5.000000
-100.109740 -6.725547 303.724563 0.426750 0.173432 0.887584 6.000000
-18.889750 17.387228 222.057921 0.638733 -0.718948 0.274107 6.000000
-11.280173 18.057136 211.741953 0.158687 -0.955267 0.249565 6.000000
87.042747 78.434134 293.511083 0.820390 -0.496069 -0.284387 5.000000
-4.018349 9.937236 135.718781 -0.058248 -0.992819 0.104485 5.000000
-196.826768 20.236654 164.203771 0.269643 -0.928531 0.255191 4.000000
-1.592163 26.524531 205.594270 -0.530702 -0.846422 0.043881 5.000000
-4.540762 0.851382 96.132231 -0.128185 -0.991696 0.010356 0.000000
31.572919 36.299698 258.091089 0.470725 -0.833800 0.288436 5.000000
-32.179432 13.505154 240.921676 0.795834 -0.395851 0.458204 6.000000
-62.692405 10.033065 162.549046 0.339912 0.308077 0.888565 4.000000
-28.888597 20.369878 247.669855 0.551620 -0.765254 0.331817 6.000000
15.820732 9.694758 184.217475 0.699158 0.486286 -0.524122 5.000000
-149.279295 24.241188 177.311495 -0.058838 0.179017 0.982085 4.000000
-187.841128 30.331053 178.488584 -0.342198 -0.824468 0.450724 4.000000
-153.755618 24.333485 177.278831 0.079760 0.104798 0.991290 4.000000
-38.599919 12.514867 141.461084 0.725986 0.457641 0.513331 4.000000
-25.077400 4.202471 71.752864 0.230703 -0.932286 0.278601 2.000000
60.495174 -47.542064 127.070535 0.677791 0.653722 0.336521 3.000000
87.715571 77.657000 296.541636 0.827898 -0.473276 -0.300989 5.000000
19.114764 26.575487 208.681329 0.189953 -0.938459 0.288465 5.000000
-20.992616 5.213294 207.942669 0.917638 -0.247718 0.310768 6.000000
-8.797781 -1.164860 182.046949 -0.473377 -0.868752 -0.145547 6.000000
-11.068985 17.554652 209.686394 0.164417 -0.959841 0.227317 6.000000
121.574124 53.478871 338.756458 -0.081888 -0.995581 0.045969 5.000000
-155.960922 35.779941 171.188635 -0.380097 0.208458 0.901150 4.000000
1.087106 2.574029 128.117577 0.905064 -0.421347 -0.057664 5.000000
-11.241534 14.434905 197.255661 0.409175 -0.879831 0.241813 6.000000
27.903925 35.664556 262.045011 0.638799 -0.714205 0.286088 5.000000
7.273083 5.110874 77.599981 0.804989 -0.372196 -0.462021 3.000000
-5.337304 0.609996 26.505508 -0.399421 -0.915148 -0.054475 0.000000
63.574475 51.008199 290.499610 0.812639 -0.351556 -0.464786 5.000000
12.714316 28.584267 225.013570 0.789205 -0.552165 0.268830 5.000000
2.881012 23.266842 205.587113 -0.567598 -0.812064 0.135591 5.000000
42.614762 -3.741885 18.830063 0.186787 0.032751 0.981854 1.000000
-9.385647 14.048042 193.162390 0.325552 -0.916579 0.232160 6.000000
-53.022906 10.889055 157.648799 -0.305991 -0.810945 -0.498736 4.000000
37.028177 56.680317 258.052530 -0.625658 -0.633708 0.454935 5.000000
0.417408 1.818334 90.130759 0.706018 -0.706241 0.052550 0.000000
-102.408107 21.219904 174.964913 0.021110 0.240394 0.970446 4.000000
29.006816 43.822253 241.026447 -0.538390 -0.596740 0.595011 5.000000
-74.296134 32.234623 172.129394 -0.409153 -0.866290 0.286592 4.000000
40.732595 42.012964 262.061438 0.735639 -0.667995 -0.112327 5.000000
83.525410 -121.419927 113.545106 0.048769 0.406363 0.912409 3.000000
-6.839988 10.061939 136.601469 0.172352 -0.958938 0.225241 5.000000
-19.719403 18.903074 228.173171 0.624557 -0.735426 0.262824 6.000000
-22.241786 20.543579 238.505140 0.509494 -0.807222 0.298007 6.000000
-9.127680 6.693693 167.491833 0.895818 -0.408586 0.174837 6.000000
4.890479 2.441589 172.191386 0.820714 -0.549716 -0.155697 5.000000
15.069279 3.548263 179.496674 0.712321 0.257826 -0.652782 5.000000
-127.956773 20.060714 185.916595 0.402360 0.792556 0.458216 4.000000
-8.965652 6.490023 104.421136 0.323764 -0.906432 0.271215 4.000000
0.180473 1.598933 192.104455 0.547537 -0.836725 0.009737 7.000000
96.046433 77.456756 306.912211 -0.509262 0.234962 0.827916 5.000000
-3.456496 0.334959 62.835755 -0.195445 -0.980682 0.007968 0.000000
59.361259 -34.631433 117.161162 0.179610 0.347564 0.920293 3.000000
-23.717425 18.744915 236.416290 0.540156 -0.774046 0.330280 6.000000
-133.000643 35.442233 179.274301 -0.306538 -0.877324 0.369239 4.000000
10.213546 18.399869 182.297027 0.177458 -0.972562 0.150440 5.000000
-69.102553 2.001825 282.763515 0.703588 -0.144978 0.695662 6.000000
-12.559126 17.500700 210.671686 0.287749 -0.919967 0.266199 6.000000
1.132949 11.788749 148.963268 0.003816 -0.985446 0.169948 5.000000
16.900961 18.439669 199.327418 0.679798 0.625310 -0.383225 5.000000
0.697711 0.948132 154.298954 0.731708 -0.681385 -0.017819 6.000000
-0.882438 6.685268 38.746204 -0.262532 -0.964907 -0.005688 0.000000
59.818160 59.881797 277.396699 -0.693796 0.097160 0.713588 5.000000
40.934527 -16.662784 110.072225 -0.537259 -0.154131 0.829214 3.000000
29.223730 28.042476 237.820105 0.876128 -0.478110 -0.061727 5.000000
0.821903 2.916104 188.956161 0.882254 -0.469141 0.039184 7.000000
-26.831802 5.692789 224.611315 0.874815 -0.327501 0.356989 6.000000
-7.400664 1.962577 41.344480 -0.551579 -0.834057 -0.010450 0.000000
12.292500 3.345464 175.915062 0.827726 0.058505 -0.558074 5.000000
89.617222 64.766777 317.999391 -0.121219 -0.990020 0.071882 5.000000
0.085785 6.296304 82.570908 -0.183575 -0.981701 0.050639 0.000000
-54.600398 -8.318336 280.866191 -0.528860 -0.741211 -0.413417 6.000000
2.163362 5.281899 51.443387 -0.548254 -0.836312 -0.000616 0.000000
-103.907707 22.026259 174.798078 0.061038 0.265346 0.962219 4.000000
-20.116302 15.931451 221.095074 0.655243 -0.719294 0.230807 6.000000
2.015900 8.656121 118.132418 0.472273 0.828440 0.301074 0.000000
-12.862348 21.405858 226.119390 -0.219451 0.945719 -0.239702 6.000000
149.081652 45.165370 341.563949 -0.345818 -0.462659 -0.816307 5.000000
-36.804461 -12.652596 258.577241 0.596364 0.509757 0.620078 6.000000
-46.394749 10.196465 153.141389 -0.475578 -0.747673 -0.463476 4.000000
14.766272 25.969265 211.699073 0.434320 -0.849953 0.298239 5.000000
-3.499169 11.357672 211.792072 0.184507 -0.966940 0.176025 7.000000
-72.845133 11.714935 76.023555 0.797942 0.200835 -0.568290 2.000000
-64.913586 26.981514 170.746905 -0.369924 -0.845703 0.384634 4.000000
7.955610 21.923388 210.754702 0.047444 -0.994162 0.096905 5.000000
65.748306 45.774889 299.573479 0.872851 -0.476511 -0.105207 5.000000
3.897525 23.242755 211.032190 0.472130 0.880291 -0.046698 5.000000
0.985602 3.951837 113.420128 0.852240 -0.523018 0.011826 0.000000
-4.328020 1.093339 9.017438 -0.185776 -0.982324 0.022962 0.000000
-6.132434 1.092392 29.750508 -0.570725 -0.820802 -0.023615 0.000000
-10.109777 -2.745613 193.391557 -0.406762 -0.891035 -0.201498 6.000000
-18.047054 22.136209 235.247698 0.503556 -0.830447 0.238306 6.000000
10.544292 20.712362 195.990979 0.322031 -0.932920 0.161110 5.000000
38.661358 42.537286 253.649512 0.847588 -0.459336 -0.265714 5.000000
79.139893 -77.242745 118.012950 0.672572 0.515522 -0.530926 3.000000
67.415999 76.499406 281.108783 -0.417271 0.137853 0.898266 5.000000
-19.936531 17.191445 224.021171 0.674633 -0.686041 0.272430 6.000000
-6.261936 1.528029 94.759860 0.539252 0.842107 -0.007916 0.000000
82.297838 63.941052 310.857512 0.107426 -0.983801 0.143512 5.000000
139.377256 64.399984 336.652821 -0.362696 -0.014984 0.931787 5.000000
-12.145232 11.253237 234.904450 0.866095 -0.346485 0.360316 7.000000
39.833855 42.692579 257.113738 0.852789 -0.442483 -0.277416 5.000000
-11.941685 19.511460 217.889274 0.119339 -0.965355 0.232052 6.000000
-51.390091 6.425597 263.533885 0.758386 -0.115854 0.641427 6.000000
85.923837 76.937769 292.601194 0.772558 -0.545547 -0.324859 5.000000
-67.363464 -3.253677 283.515736 -0.468128 -0.627789 -0.621882 6.000000
-48.705903 8.667704 261.164879 0.743292 -0.296186 0.599825 6.000000
3.557659 13.298894 157.662689 0.069102 -0.980307 0.184997 5.000000
-43.041765 11.935075 255.552097 0.733998 -0.450246 0.508454 6.000000
5.262803 13.200847 155.672673 -0.482565 -0.866148 0.130069 5.000000
-27.105473 15.753672 235.791666 0.626105 -0.672451 0.394718 6.000000
-26.995273 10.001941 228.235091 0.858709 -0.334869 0.387920 6.000000
82.993521 65.586346 319.205282 0.130431 -0.964877 0.228035 5.000000
-0.842410 6.508463 63.792496 -0.235083 -0.971939 -0.008429 0.000000
-191.087310 21.519718 161.167792 0.470920 -0.832561 0.291678 4.000000
-65.467194 12.634044 288.905189 -0.511763 0.820971 -0.253191 6.000000
-57.734813 -3.923695 276.867620 -0.568382 -0.672640 -0.473812 6.000000
-153.930331 33.167467 172.496684 -0.246497 0.224844 0.942701 4.000000
-43.680338 12.676327 257.313077 0.712493 -0.520095 0.471015 6.000000
-1.546492 12.770686 219.305661 0.106348 0.962025 -0.251394 7.000000
-6.620750 2.659378 135.921848 -0.460448 -0.878777 0.125452 6.000000
43.194723 -12.724230 114.321106 0.737131 0.517529 -0.434512 3.000000
-24.696063 5.789987 219.416403 0.883582 -0.305028 0.355304 6.000000
-5.564914 -0.493662 126.901589 0.446969 0.893616 0.040844 6.000000
41.133584 -24.737098 116.581137 -0.468725 -0.683623 -0.559425 3.000000
-22.286143 5.162502 72.901417 0.356141 -0.915738 0.185979 2.000000
35.458489 57.213567 256.645401 0.644816 0.577005 -0.501276 5.000000
-64.534726 4.155364 278.638048 0.711142 -0.246818 0.658299 6.000000
63.634702 -32.818556 115.877839 0.153714 0.223256 0.962564 3.000000
3.333724 2.916268 43.160277 0.929131 -0.368616 0.028941 0.000000
73.035993 58.734772 305.446462 0.732866 -0.670484 -0.115579 5.000000
-153.334169 36.554932 172.124097 -0.346437 0.075778 0.935008 4.000000
-6.781062 2.332330 10.925384 -0.633304 -0.773485 -0.025432 0.000000
-43.847935 11.698651 148.362600 -0.586018 -0.619692 -0.522077 4.000000
59.394139 55.573420 277.993934 0.758415 -0.296355 -0.580500 5.000000
-28.814487 11.618654 233.349891 0.826507 -0.344227 0.445415 6.000000
-1.744672 7.638429 19.912844 -0.251722 -0.967576 -0.020794 0.000000
-5.052051 0.113705 118.198041 -0.404643 -0.909736 -0.092978 0.000000
76.271890 60.960426 315.259951 0.787977 -0.612295 -0.064703 5.000000
18.872385 17.431601 201.783189 -0.671527 -0.682652 0.288164 5.000000
-6.062954 12.988497 223.167922 0.447259 -0.846358 0.289201 7.000000
40.681937 42.091280 264.224898 0.502582 -0.858735 0.099930 5.000000
-7.255403 10.201562 171.313710 0.373178 -0.920320 0.117256 6.000000
-8.318640 14.343807 231.348482 0.529768 -0.815337 0.233606 7.000000
-4.128143 12.110153 216.951525 0.213375 -0.963181 0.163564 7.000000
16.310654 46.173223 245.924087 0.719915 -0.578412 0.383616 5.000000
19.213315 6.039164 185.559927 -0.525379 -0.519770 0.673658 5.000000
-50.665935 -4.852065 270.438825 -0.586555 -0.641479 -0.494427 6.000000
-21.339073 1.252472 64.746270 0.665528 0.118063 0.736976 2.000000
10.383407 21.004746 198.085248 0.330369 -0.934123 0.135164 5.000000
-31.852415 -6.928968 247.945870 -0.545879 -0.686703 -0.480057 6.000000
46.828103 -33.583119 118.609407 0.026518 0.251441 0.967509 3.000000
64.458081 45.782501 296.095422 0.861586 -0.389132 -0.325952 5.000000
1.332050 6.220436 20.549784 0.514192 0.857491 0.017747 0.000000
-63.757706 10.625101 81.604632 -0.291158 -0.339168 0.894535 2.000000
-156.238772 37.731854 170.594877 -0.454167 0.209167 0.866015 4.000000
-20.899603 6.096127 73.927158 -0.467185 0.862883 -0.192800 2.000000
-239.599246 -1.858846 172.952257 0.846063 -0.532915 0.013352 4.000000
24.144356 7.679147 190.572491 0.500866 0.625528 -0.598203 5.000000
29.684742 29.311135 242.890719 0.769558 -0.626673 0.122724 5.000000
-8.957942 16.122928 202.632672 0.029124 -0.972688 0.230283 6.000000
-0.906297 6.770010 35.406951 -0.271564 -0.961141 -0.049598 0.000000
38.571930 56.194627 259.365008 -0.560223 -0.654480 0.507745 5.000000
-105.134327 38.826129 172.361520 0.599819 0.387095 0.700267 4.000000
-23.594258 7.978843 124.718829 -0.674169 -0.620471 -0.400640 4.000000
121.594799 58.122662 342.032946 -0.351846 -0.916549 -0.190110 5.000000
-111.864797 22.765053 175.701380 0.191226 0.202447 0.960442 4.000000
-48.297669 -3.612166 265.508309 -0.578706 -0.665774 -0.471004 6.000000
-16.249149 21.859847 231.153835 0.391155 -0.879699 0.270421 6.000000
-12.089411 6.194740 57.490843 0.649123 -0.641876 0.408210 2.000000
1.362999 1.564584 157.727307 0.774502 -0.627097 -0.083047 6.000000
34.373480 37.090458 255.996783 0.447062 -0.862777 0.236118 5.000000
-41.885227 17.718100 266.390285 0.452847 -0.873611 0.178139 6.000000
65.479423 47.376106 297.087033 0.873970 -0.373835 -0.310520 5.000000
3.107393 19.750497 185.639999 -0.572374 -0.814025 0.098749 5.000000
-9.637962 12.293763 145.572738 0.570763 -0.735628 0.364802 5.000000
-121.969816 20.460974 178.876167 0.215437 0.494913 0.841812 4.000000
-14.900638 18.587136 217.767366 0.408489 -0.877320 0.251885 6.000000
133.775658 61.452331 334.139372 -0.361054 0.079596 0.929142 5.000000
-73.842856 9.482291 294.264296 0.524941 -0.783943 0.331467 6.000000
127.561959 71.268847 329.661359 0.582397 -0.274327 -0.765218 5.000000
-58.775924 7.462765 273.151694 0.737967 -0.312962 0.597879 6.000000
-39.139538 15.633777 254.102100 0.634933 -0.668076 0.387988 6.000000
137.362989 59.253277 335.687367 -0.298853 0.065186 0.952070 5.000000
40.465352 42.238424 266.366544 0.417805 -0.897560 0.140798 5.000000
-34.638198 -10.652305 254.802446 0.613254 0.522820 0.592097 6.000000
-13.779849 19.958481 220.924695 0.246590 -0.930235 0.271764 6.000000
0.108315 2.573946 103.816514 0.705273 -0.708798 -0.013958 0.000000
58.901723 -42.523601 123.026048 0.521406 0.587394 0.618953 3.000000
69.555515 -37.874829 117.445259 -0.201305 0.158310 0.966651 3.000000
-50.956034 8.265415 263.846178 0.745450 -0.309066 0.590577 6.000000
-53.910272 -7.252286 277.990255 -0.506527 -0.779938 -0.367595 6.000000
-33.266543 18.716655 250.846406 0.528269 -0.789402 0.312692 6.000000
28.608670 34.425214 258.111053 0.587757 -0.723930 0.361202 5.000000
-56.401884 2.678482 269.602640 0.706791 0.096515 0.700808 6.000000
28.493641 33.657324 257.057052 0.667928 -0.651023 0.360612 5.000000
76.115441 -90.736003 108.672974 0.786144 0.038823 -0.616823 3.000000
-40.929907 16.013309 258.197719 0.581321 -0.754005 0.305848 6.000000
36.983626 -13.645228 107.712866 0.594219 0.144358 -0.791243 3.000000
-243.290301 -7.934503 178.220755 0.932970 -0.355681 0.055302 4.000000
-99.640282 33.212707 171.184512 0.336518 0.267816 0.902790 4.000000
72.434762 55.319675 312.433188 0.822547 -0.567817 -0.031634 5.000000
75.400133 -67.675657 118.605851 0.951847 0.303166 0.045587 3.000000
66.044231 47.370906 298.803545 0.883124 -0.375994 -0.280571 5.000000
-35.646002 18.422548 150.437247 0.334371 -0.882375 0.331074 4.000000
-31.724619 18.868780 248.776598 0.552092 -0.764620 0.332492 6.000000
-0.416963 7.231756 26.714213 -0.289914 -0.956398 -0.035395 0.000000
41.490319 42.709763 265.423127 0.612980 -0.789582 0.028584 5.000000
-28.985713 6.611129 230.515732 0.864633 -0.293837 0.407516 6.000000
-1.500824 17.756188 156.999074 0.692072 0.571570 -0.440844 5.000000
-8.689301 10.770380 140.545311 0.271917 -0.909595 0.314162 5.000000
-63.067632 2.324762 276.636819 0.728917 -0.103793 0.676688 6.000000
-43.438261 17.333613 268.413666 -0.298897 0.923382 -0.240887 6.000000
39.249295 66.803542 271.839931 0.034424 0.658510 -0.751784 5.000000
9.212719 22.597500 213.941954 0.299158 -0.942287 0.150335 5.000000
-2.914908 12.970388 220.142958 0.111726 -0.965661 0.234554 7.000000
-21.466492 -0.264401 64.921814 0.715681 0.072344 0.694670 2.000000
-6.906667 9.344165 165.041143 0.546780 -0.828841 0.118547 6.000000
-5.042772 8.720218 108.789251 0.198965 -0.959925 0.197375 0.000000
-10.034622 16.108727 156.780979 0.953530 -0.293705 0.067211 5.000000
-37.469686 3.920845 244.747320 0.861138 0.105443 0.497315 6.000000
8.532155 18.379636 185.431070 0.229041 -0.957548 0.175046 5.000000
4.430549 -0.732446 152.598463 0.815515 -0.480115 -0.323149 5.000000
-87.621733 -10.534978 298.926572 0.459980 0.418199 0.783280 6.000000
3.214258 13.940571 161.831906 -0.133461 -0.983659 0.120845 5.000000
18.899638 16.849134 199.811080 -0.563232 -0.771404 0.296151 5.000000
-14.197545 20.846935 225.022671 0.242077 -0.947209 0.210224 6.000000
-23.298099 12.191539 221.459831 0.840941 -0.449022 0.301989 6.000000
-35.921791 -13.512908 258.384783 0.641160 0.581185 0.501136 6.000000
-51.954874 12.665630 155.021417 -0.491501 -0.621558 -0.609994 4.000000
-17.355482 0.965065 123.814159 0.636489 0.497730 0.589191 4.000000
74.765074 -52.241418 114.724434 0.566631 -0.145168 0.811083 3.000000
-146.701588 19.372998 178.204943 -0.373904 0.243211 0.895011 4.000000
-17.219620 -2.667907 213.390509 -0.328400 -0.938547 -0.106222 6.000000
0.349716 6.063055 58.851462 -0.305576 -0.951744 -0.028416 0.000000
0.064029 6.458419 35.900044 -0.329835 -0.942996 -0.044344 0.000000
-65.013085 14.522768 86.164168 -0.532878 -0.614007 0.582268 2.000000
-111.107606 -0.788249 312.203121 0.401553 -0.765673 0.502494 6.000000
-9.221245 7.028716 106.455225 0.279775 -0.921568 0.269144 4.000000
-8.028885 13.884016 229.355129 0.596373 -0.749625 0.287059 7.000000
19.168037 4.503481 23.710963 0.032860 -0.026965 -0.999096 1.000000
-86.649481 -4.434410 296.439974 0.540364 0.018962 0.841218 6.000000
-51.357093 16.819013 275.478782 0.574771 -0.751794 0.323178 6.000000
-38.597654 14.975854 252.246642 0.672508 -0.610490 0.418373 6.000000
-27.719555 -4.891018 239.881918 -0.432807 -0.819981 -0.374580 6.000000
65.308837 -51.241057 121.172296 0.666498 0.361372 0.652067 3.000000
73.482389 56.922100 313.302371 0.847566 -0.524772 -0.079036 5.000000
-31.452487 17.620345 245.736297 0.575239 -0.730677 0.367711 6.000000
2.224620 5.896675 115.661617 0.950878 -0.309536 -0.004275 0.000000
-103.928359 2.243644 310.285927 -0.510269 0.803144 -0.307547 6.000000
-8.565057 14.837471 149.623809 0.519521 -0.773928 0.362123 5.000000
9.176433 17.448485 178.019774 0.180755 -0.950958 0.251013 5.000000
11.540881 27.261455 226.286210 0.849637 -0.482516 0.212826 5.000000
11.203110 22.135336 203.429026 0.428319 -0.891928 0.144939 5.000000
-62.810517 24.445891 166.101955 -0.095069 -0.943086 0.318669 4.000000
-1.748465 13.255011 221.364016 0.008883 -0.970109 0.242507 7.000000
-18.877996 4.486415 64.579920 0.555766 -0.771466 0.309782 2.000000
-27.248404 15.006178 234.713798 0.650670 -0.645785 0.399488 6.000000
-21.270330 -2.399136 221.414710 -0.475671 -0.858534 -0.191458 6.000000
-76.277974 13.671844 171.989670 0.706765 0.487670 0.512505 4.000000
82.460933 63.725463 308.741156 0.168767 -0.978743 0.116529 5.000000
-22.758400 8.400508 123.289871 0.499677 0.485888 0.717102 4.000000
38.638789 -14.097085 108.983526 -0.590351 -0.209743 0.779418 3.000000
64.625499 48.157891 294.130600 0.843780 -0.343234 -0.412584 5.000000
-5.614958 0.798092 31.900430 -0.438951 -0.898361 0.016401 0.000000
-61.321642 2.254874 274.729478 0.718154 -0.003937 0.695873 6.000000
41.227203 52.221510 258.206133 0.733937 0.234002 -0.637636 5.000000
1.205727 6.661228 91.341914 -0.410226 -0.910470 0.052521 0.000000
-135.163083 35.429226 177.236974 -0.338048 -0.788827 0.513298 4.000000
4.860700 13.676441 158.745601 -0.236872 -0.946770 0.217987 5.000000
17.731764 26.192994 208.610138 0.236927 -0.931494 0.276017 5.000000
-209.198681 15.009509 161.860642 0.420377 -0.854325 0.305635 4.000000
-56.448646 7.806328 270.539379 0.726614 -0.357530 0.586689 6.000000
38.941748 44.099413 250.817488 0.837089 -0.090800 -0.539478 5.000000
-196.177115 18.461731 158.027556 0.167784 -0.964324 0.204765 4.000000
33.332375 -4.880820 22.571945 0.474523 0.083096 0.876312 1.000000
-117.618004 18.768424 178.598051 -0.314784 -0.459335 -0.830616 4.000000
-24.361013 -2.866909 230.139263 -0.451904 -0.858109 -0.243788 6.000000
-6.316051 6.514248 117.670623 0.463900 -0.880290 0.099436 0.000000
15.096778 36.934635 235.404999 0.673869 -0.618603 0.404018 5.000000
-32.120994 6.890010 139.342409 0.640915 0.453813 0.619097 4.000000
-5.172077 14.000508 193.616407 -0.308182 -0.938602 0.155084 6.000000
-15.151848 19.105273 219.812160 0.393119 -0.870561 0.295940 6.000000
69.478917 -61.356648 122.480942 0.373237 0.366115 0.852440 3.000000
13.549536 21.385763 193.985668 0.238835 -0.882227 0.405751 5.000000
11.211889 0.573703 174.441421 0.791903 -0.045198 -0.608972 5.000000
11.917433 30.947620 232.081227 0.838989 -0.484124 0.248438 5.000000
40.319457 -14.499274 110.170498 -0.624796 -0.316414 0.713801 3.000000
-55.558365 7.285954 269.073550 0.753745 -0.304737 0.582240 6.000000
20.066303 13.699412 194.003624 -0.570004 -0.745786 0.344816 5.000000
-18.384361 0.827553 125.013660 0.608036 0.482377 0.630559 4.000000
-113.213984 22.509264 176.080178 -0.200582 -0.258705 -0.944901 4.000000
-34.075413 -1.897632 74.096679 0.430585 0.200534 0.879990 2.000000
-2.998244 10.178938 203.289584 0.068344 -0.981149 0.180762 7.000000
-70.223898 2.744706 284.150145 0.707851 -0.214654 0.672956 6.000000
-4.147292 0.434146 45.282620 -0.210482 -0.977479 0.015202 0.000000
37.150697 61.431738 264.640627 -0.502176 -0.711611 0.491354 5.000000
13.553184 10.541909 182.083145 0.627406 0.579324 -0.520333 5.000000
-61.129774 3.900735 274.726060 0.743585 -0.116210 0.658465 6.000000
-40.323756 11.669389 144.571355 0.597755 0.592625 0.539893 4.000000
35.743186 56.071532 255.790436 0.671725 0.476495 -0.567220 5.000000
-80.977866 16.104688 175.827662 -0.590382 -0.707531 -0.388392 4.000000
-14.270888 -2.747736 204.734893 -0.360120 -0.924901 -0.121949 6.000000
-79.397379 15.878184 173.788552 -0.615606 -0.669677 -0.415406 4.000000
32.499837 41.700194 271.163977 0.040989 -0.990690 0.129820 5.000000
-52.447051 -6.693123 274.663668 -0.551336 -0.699045 -0.455374 6.000000
-4.537919 -0.567637 160.687759 -0.416905 -0.902154 -0.110940 6.000000
43.313856 44.983298 263.720348 0.770578 -0.586315 -0.249888 5.000000
-21.712330 -2.466768 223.380300 -0.344845 -0.916967 -0.200630 6.000000
-38.805011 8.894868 247.949563 0.785590 -0.192454 0.588057 6.000000
-197.759635 18.540798 158.994910 0.155884 -0.969098 0.191179 4.000000
15.306256 43.585440 244.108461 0.722292 -0.549341 0.420142 5.000000
26.010281 25.277487 246.633031 0.810294 -0.535601 0.237813 5.000000
-56.072416 14.342705 278.602143 0.536181 -0.774686 0.335220 6.000000
-46.296491 15.500531 266.330541 0.489921 -0.800007 0.346361 6.000000
34.117935 35.741079 246.134163 0.904805 -0.381483 -0.189206 5.000000
-38.626191 17.799187 150.257740 0.015921 -0.961478 0.274420 4.000000
20.833927 2.814245 24.125712 -0.234715 0.192996 0.952713 1.000000
-228.770995 11.831816 168.715952 -0.386663 0.072009 -0.919405 4.000000
-7.613109 10.470341 174.520357 0.294745 -0.944921 0.142302 6.000000
23.913373 -4.067035 25.343594 0.006645 0.316546 0.948554 1.000000
-11.665155 15.325254 201.378841 0.295492 -0.928096 0.226545 6.000000
21.061408 -0.243759 93.846237 -0.342417 0.206080 0.916669 3.000000
17.815287 10.258612 187.037008 0.604134 0.548534 -0.578042 5.000000
-1.558322 6.663652 49.549762 -0.212703 -0.976718 -0.027923 0.000000
71.515951 -52.352499 116.562841 0.564822 0.026252 0.824795 3.000000
30.864162 30.320279 239.547958 0.894656 -0.437199 -0.091906 5.000000
-108.622182 39.848207 175.005372 0.670320 0.328118 0.665590 4.000000
38.425905 42.437416 271.586468 0.249106 -0.959240 0.133436 5.000000
-56.021763 -2.167660 272.625632 -0.542940 -0.612304 -0.574718 6.000000
15.363629 12.795379 187.540531 -0.527923 -0.691559 0.492994 5.000000
-58.672043 -0.685553 273.523428 -0.532928 -0.618818 -0.577106 6.000000
-13.756802 11.366591 119.335761 0.642300 -0.632714 0.432578 4.000000
73.132334 56.816688 311.300618 0.867788 -0.474715 -0.146935 5.000000
-20.962739 -3.743241 64.367334 0.837182 -0.237623 0.492607 2.000000
76.573094 61.414998 313.980746 0.744159 -0.666046 -0.051087 5.000000
-6.375673 11.277934 177.691957 0.127435 -0.979446 0.156352 6.000000
-127.479963 22.904319 180.582186 -0.503792 -0.644828 -0.574796 4.000000
62.927510 75.263257 279.577800 -0.383456 0.065138 0.921259 5.000000
-211.519386 12.727002 158.883281 0.490118 -0.810879 0.319780 4.000000
-17.737540 6.173481 199.337191 0.889536 -0.363324 0.276984 6.000000
-13.879340 16.978671 210.688025 0.409292 -0.875057 0.258369 6.000000
-40.874788 19.357255 155.190559 -0.180534 -0.938936 0.292927 4.000000
-15.986948 21.311781 229.114076 0.352294 -0.899663 0.257869 6.000000
28.050013 5.521517 24.604988 0.236742 0.259942 0.936154 1.000000
-2.394636 9.587884 165.387472 -0.250144 -0.962634 0.103750 6.000000
58.333042 -38.792617 120.078893 0.435327 0.589295 0.680604 3.000000
-49.681713 10.591656 263.692373 0.719797 -0.437118 0.539277 6.000000
67.012649 -51.139419 120.190567 0.717303 0.269079 0.642708 3.000000
-3.180736 0.261072 57.414912 -0.159239 -0.987231 0.004173 0.000000
-3.412421 14.080265 224.226495 0.094312 -0.957880 0.271238 7.000000
-0.430070 0.366677 1.080586 -0.057167 -0.977350 0.203761 0.000000
15.012766 1.298179 90.078123 -0.640975 -0.328511 0.693709 3.000000
37.091043 38.844072 256.947646 0.576449 -0.809184 0.113705 5.000000
59.821425 -36.588430 117.857678 0.275933 0.407976 0.870297 3.000000
-10.014041 5.675475 103.487413 0.875392 -0.385829 0.291247 4.000000
-5.911747 -4.552953 212.745390 -0.209098 -0.975665 0.065994 6.000000
3.733585 10.772093 139.730163 0.634056 0.626969 -0.452639 5.000000
71.306614 77.803866 282.635402 -0.400682 0.180877 0.898186 5.000000
-83.724722 35.950158 172.354065 -0.316761 -0.886909 0.336237 4.000000
41.694401 43.148720 268.478935 0.435195 -0.893341 0.112014 5.000000
-74.291121 15.656959 167.968650 0.575256 0.507696 0.641347 4.000000
83.924328 66.544320 322.467195 -0.013494 -0.978517 0.205725 5.000000
-63.884822 24.880297 166.814895 -0.191413 -0.916281 0.351840 4.000000
-27.969241 -3.353098 237.321734 -0.493081 -0.793444 -0.356817 6.000000
